# .PCD v0.7 - Point Cloud Data file format
VERSION 0.7
FIELDS x y z
SIZE 4 4 4
TYPE F F F
COUNT 1 1 1
WIDTH 1332
HEIGHT 1
VIEWPOINT 0 0 0 1 0 0 0
POINTS 1332
DATA ascii
-0.067844562 0.10386217 0.026200701
-0.065807387 0.10377803 0.0267269
-0.064819776 0.10380257 0.026993001
-0.14740482 0.027315605 -0.00333555
-0.16505237 0.072818354 -0.059839401
-0.1057271 0.043683149 -0.0205239
-0.12782525 0.024730209 -0.010241
-0.1268599 0.024295479 0.0374001
-0.12614763 0.025009163 0.037286099
-0.12553819 0.025612969 0.037341699
-0.12474657 0.026451237 0.037556801
-0.12405029 0.027177226 0.0379267
-0.12334707 0.027898826 0.038276199
-0.12267213 0.028620429 0.038574599
-0.1219762 0.029340398 0.038826101
-0.1212592 0.030051753 0.039043002
-0.12054628 0.030757587 0.039264701
-0.11984654 0.031472903 0.039399501
-0.11915597 0.032187495 0.039425202
-0.11844037 0.032890361 0.0395303
-0.11773773 0.033602916 0.039656401
-0.11706287 0.034331515 0.0397144
-0.11635505 0.035039332 0.0398301
-0.115657 0.035754357 0.039846599
-0.11494119 0.036454607 0.039946899
-0.11424921 0.03718194 0.039876699
-0.1135245 0.037869878 0.0398334
-0.1128244 0.038589787 0.0397432
-0.11211108 0.039290387 0.039398201
-0.1114157 0.039995655 0.0390734
-0.11069863 0.040685862 0.039266199
-0.10997638 0.041393962 0.039685499
-0.10928894 0.042115353 0.039958902
-0.10857914 0.042822316 0.040068202
-0.10789141 0.043545406 0.040113401
-0.10718459 0.044260714 0.0401229
-0.1064702 0.044960961 0.040105
-0.10575072 0.0456663 0.039863501
-0.10502714 0.046396956 0.0393054
-0.1042921 0.047099464 0.038704298
-0.10358068 0.047758557 0.0383007
-0.10285985 0.048439786 0.038038999
-0.10216306 0.049128082 0.038116999
-0.10146345 0.049834758 0.038235702
-0.10077418 0.050545268 0.038376
-0.1000554 0.051258385 0.0387065
-0.099380113 0.051984586 0.038993198
-0.098663881 0.052696571 0.0393329
-0.09795557 0.05341053 0.039566901
-0.097292803 0.054141186 0.0396423
-0.096546382 0.054832458 0.0398129
-0.095866002 0.05555243 0.039854601
-0.09517473 0.056270566 0.040114898
-0.094538547 0.057022713 0.040463202
-0.093764968 0.057705782 0.040833101
-0.09304373 0.058421373 0.0411704
-0.09236455 0.059142977 0.041450098
-0.091695055 0.059866205 0.041634001
-0.090972468 0.060574651 0.041836601
-0.090258151 0.061280489 0.041937999
-0.089564547 0.061993886 0.042069901
-0.08884754 0.062700994 0.042158
-0.088127069 0.063403077 0.042009201
-0.087460898 0.064127229 0.042123798
-0.086770132 0.064847708 0.042506699
-0.086060479 0.065574318 0.042943899
-0.085362069 0.066281222 0.0429665
-0.084651992 0.066991299 0.0430572
-0.083953798 0.067706466 0.0431864
-0.083245911 0.068414353 0.0431922
-0.082552783 0.069131516 0.043461099
-0.081843756 0.069851868 0.043762799
-0.081153318 0.07056351 0.043922201
-0.08044745 0.071269378 0.044012599
-0.079744183 0.071972646 0.043930698
-0.079035148 0.072671771 0.0439086
-0.078332186 0.07337898 0.043816101
-0.077626176 0.07407368 0.043785699
-0.076911457 0.074772842 0.0435513
-0.07619641 0.075472333 0.043324798
-0.075482406 0.076163717 0.043049902
-0.074764758 0.076860145 0.0427825
-0.074036308 0.077571623 0.042479102
-0.073326409 0.078257486 0.0422902
-0.072591789 0.07896664 0.041866899
-0.071875736 0.079655826 0.041586999
-0.071160413 0.080349945 0.041443702
-0.070438296 0.081039533 0.0412811
-0.069733389 0.08175575 0.041194901
-0.069011159 0.082453944 0.041296002
-0.068312526 0.083170965 0.0414414
-0.067565389 0.08385586 0.041997299
-0.066881761 0.084576264 0.0421465
-0.066188447 0.085287966 0.042155098
-0.065486923 0.085990906 0.042156801
-0.064786039 0.086698852 0.042040501
-0.064085305 0.087409496 0.0418084
-0.063369706 0.088103876 0.041553698
-0.062637851 0.088759363 0.041378301
-0.061930113 0.089479841 0.040904999
-0.061217632 0.090205051 0.0404393
-0.060494188 0.090908691 0.039834399
-0.059765443 0.091572374 0.039533801
-0.059053175 0.09231434 0.0392433
-0.05833482 0.092981778 0.039049301
-0.14513373 0.094900727 -0.000114667
-0.14108527 0.037145242 0.0530224
-0.038424179 0.09703584 0.0271584
-0.040192232 0.10140024 0.0101615
-0.050086141 0.10088964 -0.00582268
-0.12119846 0.039905924 0.035951599
-0.12048724 0.040611476 0.0357075
-0.076907761 0.10237775 0.0220214
-0.041652411 0.099689752 -0.00278716
-0.11166701 0.066868961 0.00820251
-0.11981656 0.041330248 0.035405401
-0.15014811 0.077306926 0.0070480299
-0.13327676 0.030882318 0.0519992
-0.15648627 0.045501612 0.0455967
-0.11912169 0.042039264 0.0351234
-0.15688691 0.064099506 -0.0073402701
-0.084460653 0.099682681 0.0207729
-0.081831619 0.10083243 0.0217505
-0.079103187 0.10163896 0.0226817
-0.076291583 0.10223024 0.023568001
-0.075378001 0.1024947 0.023874899
-0.15687954 0.062811442 0.0069031501
-0.10129609 0.073405959 0.0272668
-0.15500119 0.065090023 0.025379401
-0.15196043 0.071645118 0.0075145299
-0.13581166 0.053675976 -0.0060002198
-0.10176143 0.035525184 -0.021947101
-0.13989116 0.11689464 -0.026254799
-0.13742803 0.07939069 -0.00775366
-0.065113433 0.086528443 -0.0182666
-0.12712118 0.026004206 0.037440602
-0.12642914 0.026721705 0.037277199
-0.12573709 0.027426478 0.037332401
-0.1250478 0.028151125 0.037537199
-0.12435131 0.028873075 0.037758902
-0.12364221 0.029600553 0.038043201
-0.12295485 0.030319039 0.038208801
-0.12223662 0.031028762 0.038404699
-0.12154523 0.031744216 0.0384413
-0.12082928 0.032446019 0.0385383
-0.12013228 0.033161402 0.0385563
-0.11940651 0.033854648 0.038639601
-0.11872061 0.034580138 0.0386802
-0.11801343 0.035284486 0.0387966
-0.11730421 0.035992298 0.038910501
-0.11661132 0.036710653 0.038934499
-0.11592499 0.037436567 0.038972199
-0.11521867 0.038148556 0.039095599
-0.11450809 0.038853467 0.038977001
-0.11379398 0.039552018 0.038849
-0.1130849 0.04025545 0.0386132
-0.11235686 0.04093964 0.038565502
-0.11166142 0.041657712 0.038818501
-0.11097991 0.042383064 0.0391022
-0.1102726 0.043098871 0.039224599
-0.10955106 0.043794941 0.0393098
-0.1088511 0.04450763 0.039323099
-0.10816358 0.045240406 0.0392485
-0.10745505 0.045964487 0.0391565
-0.1067408 0.046681564 0.038926098
-0.10601036 0.047382306 0.038558502
-0.10527603 0.04803744 0.038128
-0.10457253 0.048759326 0.037707299
-0.10385532 0.049425639 0.037535701
-0.10315125 0.050119799 0.037520301
-0.10245567 0.05082386 0.037638102
-0.10173202 0.051520646 0.037827201
-0.10107589 0.052236166 0.0380462
-0.10035853 0.052960601 0.038241301
-0.099642657 0.053670816 0.038463701
-0.098959945 0.054395951 0.038620301
-0.098234527 0.05509875 0.038829099
-0.097557969 0.055821978 0.038879301
-0.096816353 0.056514092 0.039060101
-0.09610033 0.057223037 0.0392888
-0.095440105 0.057959631 0.039715599
-0.094771333 0.058686398 0.040125899
-0.09406203 0.059401348 0.0403619
-0.093359023 0.060115669 0.040607501
-0.092662878 0.060835861 0.040865701
-0.091963552 0.061553575 0.041118
-0.091232464 0.06225495 0.041306
-0.090565883 0.062980942 0.0413935
-0.089849226 0.063689105 0.0416031
-0.089130238 0.064393952 0.041571599
-0.088458136 0.065111309 0.0417725
-0.087735757 0.065833688 0.0421893
-0.087058559 0.066554725 0.042490799
-0.086330518 0.067265794 0.042661101
-0.085631542 0.067977495 0.0427908
-0.084939428 0.068689413 0.042831399
-0.084226675 0.069399349 0.0429333
-0.083523281 0.070118286 0.0432746
-0.082836382 0.070832051 0.043439198
-0.082131304 0.071539976 0.043553099
-0.081432819 0.07224977 0.043581001
-0.080719739 0.072945878 0.043545499
-0.080003574 0.073640838 0.043502301
-0.079307996 0.074353375 0.043430001
-0.078598812 0.075058326 0.043312699
-0.077891581 0.075755648 0.043168999
-0.077182643 0.07645186 0.043019999
-0.076466724 0.077157885 0.042790301
-0.075758278 0.077860668 0.042666402
-0.0750392 0.078571253 0.0424686
-0.074330181 0.079259068 0.042284898
-0.073604807 0.079957575 0.0419458
-0.072888523 0.080648392 0.0416722
-0.072161891 0.081352405 0.041332301
-0.071436197 0.082038492 0.040936802
-0.070713356 0.082723156 0.040656801
-0.069997169 0.083436511 0.0403312
-0.069252059 0.084101021 0.040344998
-0.06857875 0.084846452 0.040322501
-0.067838691 0.085531346 0.040622
-0.067148559 0.086246945 0.040767401
-0.066459343 0.086965859 0.040795501
-0.065763898 0.087683924 0.040692501
-0.065021858 0.088338286 0.040500201
-0.064324871 0.089069217 0.0401752
-0.063622147 0.089800224 0.0398481
-0.062902801 0.090487041 0.039703399
-0.062188409 0.091181628 0.0395681
-0.061469287 0.091876715 0.039309502
-0.060753204 0.092573009 0.039051998
-0.060035411 0.093275234 0.0388101
-0.059317704 0.093973145 0.038558301
-0.046014059 0.10338913 0.0131657
-0.034319993 0.097393766 0.0021909201
-0.14728256 0.1056071 -0.0055432701
-0.028677844 0.093228772 0.0151659
-0.11835694 0.042709246 0.035029199
-0.11765536 0.043422155 0.034920901
-0.11695999 0.044138733 0.034815699
-0.094297647 0.09131363 0.0146415
-0.062840082 0.10381932 0.0275093
-0.15392435 0.025375299 0.0062726499
-0.15931058 0.031669043 0.0112131
-0.04205355 0.10138306 0.00119033
-0.047530092 0.10378511 0.0151622
-0.11625238 0.044871788 0.034732401
-0.16610879 0.061544232 -0.0103701
-0.16547762 0.062708557 -0.0099110203
-0.07157813 0.070871353 0.046395399
-0.16070338 0.058711853 0.0282101
-0.093251243 0.089521721 0.026005
-0.1572862 0.062687628 0.0082242899
-0.078664117 0.073179983 -0.022403
-0.14423706 0.049500305 -0.0080982698
-0.14306247 0.094787024 -0.0152479
-0.13900913 0.04850851 -0.0081129102
-0.13593428 0.041276578 -0.0088761002
-0.066257954 0.083420992 -0.0196306
-0.082518242 0.07135243 -0.0224197
-0.11553425 0.04553619 0.0347794
-0.13777933 0.089568228 -0.0135462
-0.1300341 0.036845919 -0.0090663899
-0.12726493 0.027621146 0.038063399
-0.12659205 0.028319482 0.038095199
-0.12599462 0.02911349 0.037959401
-0.12532187 0.029858358 0.037748601
-0.12462156 0.030581307 0.0377695
-0.13264835 0.03154467 0.052111201
-0.1233045 0.0319224 0.037779499
-0.14692208 0.082568005 0.0062230099
-0.1218002 0.033416808 0.037765902
-0.12109027 0.034119673 0.037755899
-0.12040317 0.034846362 0.037694201
-0.1196873 0.035543852 0.037788399
-0.11898012 0.036252446 0.037791301
-0.11828573 0.036968034 0.037810098
-0.11756335 0.037663545 0.0379025
-0.11685908 0.038373485 0.037907701
-0.11613266 0.039063122 0.037874199
-0.11547118 0.039812304 0.037838601
-0.11476138 0.04051644 0.037832499
-0.11404331 0.041213293 0.037824102
-0.11334179 0.041923299 0.037941501
-0.11265159 0.042644624 0.0380885
-0.11194843 0.043357667 0.0382143
-0.11123779 0.044062655 0.0383224
-0.11053824 0.044777747 0.038335402
-0.10982408 0.045482028 0.0383281
-0.10913146 0.046208583 0.038234301
-0.10843623 0.046939157 0.038153101
-0.10769688 0.047609217 0.038093802
-0.10698716 0.048331667 0.0377618
-0.10626741 0.049033049 0.037401699
-0.10554912 0.049715973 0.037138499
-0.10484017 0.05041502 0.036904
-0.10412197 0.05109787 0.036860902
-0.10341804 0.051794723 0.036959201
-0.10270606 0.052496806 0.037066299
-0.10202766 0.05322329 0.0372255
-0.10131326 0.053930607 0.037451498
-0.1006097 0.05464267 0.0375732
-0.099910296 0.055354796 0.037703302
-0.099229783 0.056084812 0.037747599
-0.098506272 0.056777213 0.037835602
-0.097796686 0.057485379 0.038070198
-0.097132221 0.058213487 0.038242701
-0.096426733 0.058924623 0.038607098
-0.095745862 0.059650749 0.039118402
-0.095033735 0.060372781 0.039600201
-0.094322667 0.06108667 0.0398372
-0.09364187 0.061808489 0.040116999
-0.092936672 0.062524997 0.040361501
-0.092214927 0.063229769 0.040570099
-0.091532141 0.063952148 0.040738702
-0.090820231 0.064662658 0.040960699
-0.090144448 0.065378033 0.041097801
-0.089421496 0.066093907 0.041337699
-0.088704064 0.066811338 0.041665699
-0.088021785 0.067531809 0.041952901
-0.087309018 0.068241745 0.0421694
-0.086618178 0.068959452 0.0423152
-0.085907109 0.069662042 0.042407501
-0.085193634 0.070376918 0.042623699
-0.084523417 0.071099468 0.042836901
-0.083815247 0.071806222 0.042942502
-0.083066121 0.072510093 0.043032899
-0.082388893 0.073207125 0.0430195
-0.081693314 0.073918261 0.042929798
-0.080983825 0.074623503 0.042916901
-0.080268845 0.075318694 0.042985901
-0.079570487 0.076034009 0.042896502
-0.07886567 0.076741658 0.0427805
-0.078156099 0.077441335 0.042642102
-0.077453993 0.07814344 0.042625401
-0.076748855 0.07886555 0.0425823
-0.076045297 0.079550721 0.042504899
-0.075329259 0.080259681 0.042298
-0.074621111 0.080946624 0.042013399
-0.073891811 0.081649058 0.0416767
-0.13512379 0.01869598 -0.00060728902
-0.090619847 0.078612015 0.037386701
-0.071637981 0.083576195 0.040322602
-0.070980847 0.084407285 0.0399119
-0.070256434 0.085096337 0.0397458
-0.06956467 0.085833356 0.039713301
-0.068860397 0.086541876 0.039828598
-0.068132922 0.08723399 0.040010601
-0.067422703 0.087928653 0.040115699
-0.066745929 0.088669069 0.039957698
-0.066015914 0.089335442 0.039767601
-0.065298624 0.090040006 0.039410301
-0.064587556 0.090751074 0.039179102
-0.06387578 0.091464266 0.039058901
-0.063149869 0.092113808 0.038864799
-0.062437531 0.092845947 0.038422801
-0.061713941 0.093527101 0.038148399
-0.061061002 0.094353996 0.0378397
-0.13660355 0.017402887 0.0033618801
-0.15312468 0.054792996 0.0417131
-0.067238078 0.10471757 0.023737401
-0.040647045 0.098713517 -0.0037964501
-0.048859522 0.095557138 0.0356213
-0.11484199 0.046258144 0.034679599
-0.15139361 0.093538269 -0.0056111999
-0.15106508 0.088868968 0.00035762999
-0.15715477 0.069074154 -0.039604802
-0.14793098 0.096317843 -0.000384966
-0.089185402 0.011173557 0.039325502
-0.050958432 0.08764299 -0.019745501
-0.092646897 0.070704669 0.0382335
-0.048935115 0.10227118 0.0261871
-0.16658071 0.060151674 -0.0108988
-0.091337338 0.092523143 0.024359399
-0.076603562 0.098133832 0.0310525
-0.12079604 0.058161374 0.019839801
-0.15883796 0.061215077 0.0074497098
-0.14053485 0.069777086 -0.0032085699
-0.087199762 0.046401545 -0.0247187
-0.081796415 0.072057284 -0.0226031
-0.12821047 0.028070014 0.042479798
-0.10422046 0.049230188 -0.019659
-0.096605845 0.03463798 -0.022484099
-0.14088735 0.071521863 -0.0040442999
-0.14440329 0.067956418 -0.0025690701
-0.14115435 0.042246521 -0.0090163201
-0.11360512 0.019059993 -0.017310601
-0.049556382 0.10363407 0.00216703
-0.12282494 0.0095802359 -0.0095775798
-0.11411805 0.046938244 0.034643799
-0.11338408 0.047626965 0.0344899
-0.14652404 0.097802557 -0.000813008
-0.14514279 0.099130079 -0.0027020699
-0.081522338 0.10120536 0.020503599
-0.11168186 0.066616528 0.0052184798
-0.14482537 0.084659062 0.0051140902
-0.14616823 0.025162324 -0.0027259199
-0.12207024 0.034995135 0.037030701
-0.1213603 0.035796996 0.0368734
-0.12065682 0.036514644 0.0367915
-0.11994808 0.037220545 0.0367864
-0.11923043 0.037918389 0.0367615
-0.11852516 0.038626488 0.0367634
-0.11784599 0.039362229 0.036706202
-0.11713718 0.040065374 0.036703799
-0.11644486 0.040783156 0.0367213
-0.11571766 0.041474994 0.036920998
-0.11502761 0.042194758 0.036949299
-0.11430608 0.04288942 0.037040699
-0.11360914 0.04360614 0.037059601
-0.11291604 0.044326119 0.037078898
-0.11218645 0.045014694 0.037163801
-0.11152049 0.045758434 0.037100799
-0.11079761 0.046454441 0.037084199
-0.11007439 0.047147967 0.037059501
-0.10936856 0.047858048 0.037067398
-0.10867383 0.048586715 0.036861699
-0.10796969 0.049309239 0.036650501
-0.10723649 0.049984455 0.036485001
-0.10651828 0.050675798 0.0363447
-0.1057995 0.051363461 0.0361977
-0.10510881 0.052089516 0.0359971
-0.10436232 0.052746914 0.036023401
-0.10366765 0.053462788 0.036039799
-0.10300113 0.054194361 0.036099698
-0.10228886 0.054900967 0.036329299
-0.10158119 0.055608641 0.036444601
-0.10084254 0.056300618 0.036641899
-0.10017744 0.057035021 0.036700498
-0.099437177 0.057721555 0.036772899
-0.098783597 0.058459982 0.0369648
-0.098081723 0.059171755 0.0372083
-0.097389042 0.059887066 0.037462499
-0.096698977 0.060608245 0.037967201
-0.096006148 0.06133642 0.038591899
-0.095345147 0.062068142 0.039012
-0.094611242 0.062782243 0.039349999
-0.093912765 0.063496277 0.0395987
-0.093200557 0.064209886 0.039834298
-0.092490695 0.064923994 0.040066
-0.09179908 0.06563966 0.040212799
-0.091090761 0.066352211 0.040443402
-0.090391517 0.067067027 0.040695202
-0.089667782 0.067782268 0.0410203
-0.089009471 0.068505637 0.0412273
-0.088296428 0.06921868 0.041450601
-0.087584861 0.069928832 0.041671999
-0.086867854 0.070640177 0.041886501
-0.086163573 0.071375571 0.042063601
-0.085506797 0.072079018 0.042227101
-0.084790692 0.072782397 0.042321298
-0.084061235 0.073472247 0.042378198
-0.083377451 0.074191391 0.0421995
-0.082659505 0.074890949 0.042286102
-0.08191283 0.075592369 0.042403799
-0.081260085 0.076317236 0.042426702
-0.080554068 0.077026099 0.042426001
-0.0798475 0.07772842 0.042411301
-0.079146273 0.078439541 0.0424297
-0.078440271 0.079134233 0.042493399
-0.077734508 0.079845659 0.042409498
-0.077024728 0.080539867 0.042270701
-0.076311409 0.081234798 0.042017501
-0.075592838 0.081937827 0.041675098
-0.074879251 0.082630195 0.0414038
-0.074160598 0.083321981 0.041026998
-0.099948905 0.070958801 0.0318342
-0.072713137 0.084690243 0.040114298
-0.071976058 0.085414596 0.0396928
-0.071255855 0.086095192 0.039394099
-0.070537515 0.086802237 0.0392728
-0.069828063 0.087504596 0.039269101
-0.069124773 0.088217795 0.039400298
-0.068426371 0.08893317 0.039425202
-0.06771148 0.089631088 0.039292499
-0.067004591 0.090353534 0.038969301
-0.066273652 0.091008104 0.038757
-0.065553539 0.091673069 0.038468
-0.064832784 0.09239807 0.038008701
-0.064125672 0.093139112 0.0377036
-0.06340351 0.093810372 0.037528999
-0.062682264 0.094489194 0.037370998
-0.1016922 0.061375096 0.033686802
-0.10525652 0.074386783 0.0088932198
-0.16592424 0.05600265 -0.0159116
-0.040386684 0.099020265 -0.0028059699
-0.11597683 0.064346716 0.00348399
-0.11270744 0.048360161 0.0345333
-0.15888414 0.032255314 0.0272131
-0.15226045 0.039860457 0.050416701
-0.04850328 0.10278645 0.024193199
-0.14753741 0.098827079 -0.0015497
-0.044520933 0.10292074 0.0041637202
-0.13977839 0.018299565 0.0253403
-0.14754172 0.10312338 -0.0041811899
-0.14480868 0.11014292 -0.0098524
-0.11199652 0.04906401 0.034650799
-0.088933095 0.094388574 0.0254511
-0.15244642 0.062730409 -0.0065048798
-0.15787826 0.064120725 -0.0075915698
-0.083581224 0.10004875 0.0210966
-0.080928795 0.10111868 0.0220636
-0.07817468 0.10186177 0.022981901
-0.16678718 0.068499766 -0.0203616
-0.072682306 0.10343678 0.0248197
-0.087876335 0.045674503 -0.024327699
-0.12813418 0.026469063 -0.0102252
-0.095926806 0.035351943 -0.0227901
-0.095240489 0.036064848 -0.022965999
-0.097297817 0.033896223 -0.0220335
-0.07225205 0.079497308 -0.0203142
-0.14158881 0.070803456 -0.0037815
-0.13742329 0.092017286 -0.0144989
-0.10008481 0.031036686 -0.0215945
-0.086346149 0.04540424 -0.025199
-0.1483271 0.081154495 0.0064751301
-0.15001929 0.017973728 0.0242915
-0.048183594 0.10308775 0.022171199
-0.14582169 0.098461084 -0.0015628299
-0.14249742 0.035709031 0.0529241
-0.13894925 0.039258637 0.052538998
-0.11130483 0.049783994 0.034674998
-0.14772987 0.032467794 0.052409802
-0.14065258 0.039552163 0.052187301
-0.12304938 0.03609632 0.036564399
-0.12233881 0.036791332 0.036290001
-0.12162986 0.037494618 0.036169901
-0.12091696 0.038203288 0.0360801
-0.12021239 0.038903605 0.036021501
-0.1195033 0.039607029 0.035901699
-0.1187991 0.040318303 0.0359102
-0.11810783 0.041042101 0.035825599
-0.11740433 0.041751262 0.035825599
-0.11669327 0.042439703 0.0359139
-0.11598396 0.043153241 0.035919201
-0.1152536 0.043838356 0.035879601
-0.11459585 0.044593681 0.035717402
-0.11389715 0.045303695 0.035725001
-0.11316417 0.045991424 0.0358059
-0.11247544 0.046714086 0.0357108
-0.11176331 0.04741773 0.035705201
-0.1110618 0.048131976 0.035718299
-0.11036204 0.048845872 0.035730101
-0.10961972 0.049521729 0.035681799
-0.10890823 0.05022756 0.0356807
-0.10821159 0.050953906 0.0355988
-0.10751488 0.051677488 0.035503101
-0.10678981 0.052361537 0.035348602
-0.10607889 0.05306115 0.035099801
-0.10536011 0.053748813 0.034948401
-0.10465372 0.054448143 0.0349387
-0.10397524 0.055169031 0.034972999
-0.10327216 0.055877768 0.035100199
-0.10257192 0.056589335 0.035344299
-0.10186474 0.057297915 0.0354646
-0.10114229 0.057997748 0.035564698
-0.10042507 0.058699407 0.0356692
-0.099757634 0.059433319 0.035842299
-0.099034756 0.060132146 0.036056399
-0.098300003 0.060825892 0.036263201
-0.1000375 0.03521448 -0.0219211
-0.09933012 0.035930358 -0.0219722
-0.10144621 0.033801261 -0.0220665
-0.10356406 0.031675063 -0.0221275
-0.10426982 0.030962646 -0.0221428
-0.10496929 0.030247908 -0.0220115
-0.10567158 0.029523265 -0.0217935
-0.065225728 0.10234445 0.029361701
-0.066249967 0.10241339 0.029106701
-0.081885666 0.067914903 -0.0227673
-0.15332295 0.040195208 -0.0039365198
-0.096569777 0.038804676 -0.0225993
-0.097263888 0.038090501 -0.022571201
-0.039788615 0.011402097 0.0530852
-0.039203767 0.011997692 0.0528295
-0.065961465 0.081722021 -0.02004
-0.13515475 0.050283991 -0.0073358198
-0.14570791 0.035476886 -0.0068408698
-0.10431819 0.045103371 -0.0205306
-0.11395542 0.0081644654 -0.0148055
-0.11326805 0.008922983 -0.0154104
-0.10987335 0.012559343 -0.017385799
-0.069529742 0.078224465 -0.021219101
-0.067980394 0.083720878 -0.019510999
-0.059593577 0.066952512 -0.0332282
-0.10092358 0.02199237 -0.0214989
-0.13251173 0.1012224 -0.017299
-0.13706395 0.086050868 -0.0114869
-0.029636513 0.022313066 0.048450001
-0.028950959 0.02307725 0.048168201
-0.096703082 0.026280615 -0.02172
-0.11054398 0.011845313 -0.017084099
-0.1050301 0.017632838 -0.019281199
-0.14703882 0.046674497 -0.0076981401
-0.12701766 0.04026683 0.041012999
-0.061193727 0.10221299 0.0303821
-0.12907131 0.061945099 0.0155888
-0.13460463 0.090638578 -0.0130615
-0.088575095 0.044953674 -0.024093101
-0.14427219 0.028458431 -0.0045130998
-0.13990362 0.095865577 -0.0162904
-0.13147259 0.10859159 -0.0220442
-0.14580937 0.066541851 -0.0018843299
-0.15870127 0.061504498 0.0264626
-0.16584659 0.068662539 -0.020064401
-0.017664731 0.035607707 0.044521399
-0.016954016 0.036451355 0.044336099
-0.016205898 0.03725604 0.044128601
-0.10572448 0.016909748 -0.0190743
-0.082271025 0.011896506 0.037190299
-0.014271679 0.039367039 0.042909801
-0.013717869 0.039950684 0.042302601
-0.079062492 0.070750803 -0.0226578
-0.012628221 0.041058298 0.041036699
-0.13539115 0.011179358 0.0093887001
-0.12068616 0.048697028 0.033347599
-0.046919223 0.097422481 0.032488901
-0.036460269 0.099249512 0.0131589
-0.053389102 0.092919767 0.038824201
-0.051703438 0.094537556 0.036947101
-0.17536218 0.072164774 -0.052053802
-0.11461098 0.020083956 -0.0171577
-0.097957835 0.037369251 -0.0224311
-0.088879853 0.046670809 -0.0239617
-0.14353779 0.050200976 -0.0079965098
-0.080085889 0.071770936 -0.022676099
-0.13240758 0.044777814 -0.0085666804
-0.075508848 0.074293137 -0.021924799
-0.12706241 0.033848204 -0.0114133
-0.078349121 0.071454279 -0.022510501
-0.059965339 -0.010495301 0.0446412
-0.059233554 -0.0097420197 0.044468801
-0.060172945 0.10208826 0.0306143
-0.062219102 0.1023204 0.030146001
-0.064206779 0.10230696 0.0296345
-0.1088359 0.068403251 0.0049611698
-0.10813501 0.069317676 0.0053817001
-0.043533947 0.0093085654 0.054226901
-0.042764474 0.01019245 0.054156099
-0.14536256 0.037946392 -0.0076072202
-0.041373663 0.011830321 0.053610001
-0.04066281 0.012492809 0.0533971
-0.039993111 0.013206349 0.053048801
-0.098813087 0.024151515 -0.021680901
-0.097396955 0.025564384 -0.0215939
-0.038130593 0.015239425 0.051690198
-0.037451982 0.015946884 0.0513804
-0.036765024 0.016708367 0.0510973
-0.036090944 0.017433789 0.050787602
-0.035415936 0.01813538 0.050478999
-0.034757689 0.018836757 0.050136901
-0.034094989 0.01958728 0.049774501
-0.10161867 0.021280169 -0.021347299
-0.032746688 0.021057915 0.049127299
-0.032055985 0.021828946 0.048949499
-0.03140346 0.022543414 0.048651598
-0.030702066 0.023305051 0.048268098
-0.03002277 0.02403526 0.047939301
-0.02935628 0.024774158 0.0477168
-0.028667863 0.025504861 0.047333799
-0.028001463 0.026222879 0.047031801
-0.1301164 0.039566584 0.047922999
-0.13688499 0.05451468 0.035101801
-0.045190416 0.10216498 0.0211608
-0.02519956 0.029315686 0.0460492
-0.024471028 0.03013614 0.045884199
-0.023737356 0.030958485 0.045759901
-0.023006339 0.031779584 0.045605
-0.02224669 0.032650255 0.0454516
-0.07024163 0.077506915 -0.021403801
-0.02078655 0.034288444 0.045108501
-0.020059913 0.03510686 0.044914
-0.019332442 0.035926964 0.0447312
-0.01860016 0.036746643 0.044581201
-0.017869368 0.037567947 0.044415802
-0.017139986 0.038387977 0.044241499
-0.016428635 0.039202563 0.044017401
-0.015768766 0.039860174 0.0436644
-0.01513251 0.040555969 0.0432522
-0.014542431 0.04114718 0.042704999
-0.013935589 0.0417898 0.04222
-0.013326135 0.042452853 0.041716799
-0.032891564 0.09692008 0.0041772998
-0.13158613 0.1043853 -0.012207
-0.12517557 0.052277111 0.0342157
-0.14134096 0.11552124 -0.017733499
-0.14442244 0.11243266 -0.0117104
-0.048768587 0.093757264 0.0373962
-0.049264699 0.09330076 0.038172401
-0.15195866 0.063161612 -0.029598899
-0.044675007 0.086743474 0.0431563
-0.097634263 0.035633437 -0.0223045
-0.099017292 0.03419682 -0.021922899
-0.10393862 0.029224165 -0.0218064
-0.10465385 0.028511886 -0.0218364
-0.10806246 0.024929762 -0.0203993
-0.1087043 0.0242148 -0.019461
-0.10941841 0.023425311 -0.0190005
-0.14242254 0.072728828 0.0110836
-0.025080744 0.027679179 0.046379998
-0.13092577 0.0096913204 0.00039494099
-0.13418758 0.049242985 0.039485
-0.14640102 0.034747012 -0.0060724202
-0.13286798 0.022090226 0.041523401
-0.10637715 0.028806545 -0.0216695
-0.13176326 0.037161712 -0.0088598896
-0.10780429 0.027358167 -0.0213395
-0.11993429 0.051308587 0.029747199
-0.14782408 0.061827444 0.036761101
-0.14049985 0.1184582 -0.020919301
-0.12395985 0.055399202 0.0298997
-0.1276723 0.049839791 0.037972901
-0.092102006 0.091813639 0.0239772
-0.099422254 0.083568491 0.019997699
-0.059115261 0.10190144 0.0308506
-0.13883208 0.090605691 -0.0142117
-0.063269012 -0.012355348 0.0464895
-0.062493108 -0.011487799 0.046443101
-0.061763443 -0.010737486 0.046296399
-0.061020344 -0.0099238176 0.046172101
-0.060297117 -0.0091575999 0.0459929
-0.059615821 -0.0083990861 0.0456887
-0.058929145 -0.0076357629 0.045409601
-0.058242548 -0.0068785958 0.0451262
-0.057573482 -0.0061706379 0.044805199
-0.056906682 -0.0054157302 0.044475399
-0.056269366 -0.0048156083 0.0440447
-0.12200377 0.061052017 0.0113807
-0.071601927 0.065387711 -0.0305974
-0.15608795 0.063498393 0.0072845598
-0.063243777 0.1023875 0.0298812
-0.094834328 0.038513985 -0.022999501
-0.11040567 0.067116305 0.0042163501
-0.10959236 0.06768921 0.0045818002
-0.062588006 0.10437405 0.0262972
-0.16394503 0.068957537 -0.0194859
-0.044536978 0.010287978 0.0542484
-0.043774791 0.011170661 0.0540611
-0.043068811 0.011936175 0.0538623
-0.042381786 0.012709891 0.053598799
-0.041702047 0.013415937 0.053286999
-0.041013394 0.014175016 0.0529956
-0.040360805 0.014880921 0.052606899
-0.039732046 0.015530185 0.0521827
-0.039076205 0.016233686 0.051810499
-0.038417108 0.016935771 0.051463101
-0.037732985 0.017691743 0.051168501
-0.037059397 0.018410586 0.050872002
-0.036415219 0.019112743 0.050471701
-0.035757754 0.019811507 0.050101899
-0.035107639 0.020512812 0.049738899
-0.034412779 0.021277253 0.049484901
-0.033728793 0.022030393 0.049182002
-0.033068825 0.022739578 0.048838001
-0.032377705 0.023499571 0.048560999
-0.031679388 0.024266617 0.0483202
-0.030996295 0.025019007 0.0480089
-0.030329548 0.025730301 0.047682598
-0.029642601 0.026489228 0.047400601
-0.028983649 0.027197398 0.047055598
-0.028295467 0.027953884 0.046774801
-0.027599294 0.028717943 0.046535999
-0.02687888 0.029530419 0.0463369
-0.026188575 0.030289456 0.046073101
-0.025458504 0.031105939 0.045895901
-0.024699699 0.031973917 0.045751002
-0.023965433 0.032796998 0.045627899
-0.023200795 0.033669539 0.0455033
-0.022469817 0.034488481 0.045331601
-0.021737261 0.035311405 0.045190599
-0.020973707 0.036184281 0.045077998
-0.020242557 0.037006788 0.044915799
-0.019511905 0.037823565 0.044757199
-0.018782947 0.038644303 0.044581398
-0.018076546 0.039411373 0.044386301
-0.017359402 0.040225536 0.0441528
-0.016670465 0.04098504 0.0438767
-0.016023394 0.04168161 0.0434958
-0.015417544 0.042284206 0.042989299
-0.0148252 0.042874996 0.0424386
-0.014232856 0.043508068 0.041930102
-0.013637758 0.044104584 0.041401699
-0.013154659 0.044521209 0.0405434
-0.012634089 0.044994406 0.0397886
-0.012154456 0.045407284 0.038923301
-0.04944133 0.081918888 0.047440998
-0.13775869 0.11700623 -0.0213737
-0.046845257 0.090185523 0.040957499
-0.059305612 0.085020542 0.0457705
-0.15936378 0.035439912 0.0062003201
-0.009957267 0.047000468 0.032237999
-0.0095447376 0.047415257 0.031351201
-0.10434958 0.018358327 -0.0196616
-0.14118031 0.033848424 -0.0076397099
-0.094528653 0.036793806 -0.023139499
-0.10643759 0.016194228 -0.019074401
-0.12235492 0.034762781 -0.0150221
-0.029104661 0.092729986 0.00118902
-0.13013211 0.087474346 -0.0037135601
-0.1618194 0.035156503 0.027180901
-0.12897614 0.052484438 0.035845298
-0.10608165 0.027072925 -0.0217392
-0.10536697 0.027797781 -0.0218342
-0.10677086 0.026355427 -0.021551199
-0.10743759 0.025628023 -0.0211113
-0.16258739 0.073205844 -0.060591701
-0.074794181 0.074983753 -0.021649599
-0.13947588 0.072940394 -0.0044563198
-0.095151469 0.040223137 -0.0226737
-0.10073973 0.034510836 -0.0220125
-0.10215423 0.033095218 -0.022145901
-0.057388008 0.098297104 0.034983099
-0.16198507 0.054088365 -0.0118902
-0.13957007 0.061842214 0.0292765
-0.14251815 0.06096597 0.032448299
-0.16432342 0.049972363 0.032805499
-0.1415246 0.046046797 0.046303399
-0.11554386 0.064440273 0.0021605201
-0.065651327 -0.012991814 0.046969701
-0.064880937 -0.012111681 0.046932802
-0.064101636 -0.011234228 0.046928901
-0.063388653 -0.010461291 0.046761401
-0.062682748 -0.0095977001 0.0465746
-0.061980598 -0.0088978056 0.0462556
-0.061326522 -0.0081970654 0.045878101
-0.060636315 -0.0074413829 0.0455768
-0.059933592 -0.0066697858 0.0453493
-0.05920478 -0.0058771893 0.045109801
-0.058595605 -0.0052149836 0.044687301
-0.057868205 -0.0043986272 0.0445145
-0.057238381 -0.0037376955 0.044112299
-0.13202921 0.014169361 -0.00262342
-0.16058537 0.034468628 0.038166098
-0.13090377 0.05845375 0.029412
-0.13134664 0.058029283 0.0302884
-0.13973272 0.018732749 0.0307632
-0.057969667 0.09775079 0.0355841
-0.06157048 0.10429274 0.026543399
-0.16711585 0.05028272 0.024657
-0.046350993 0.010327438 0.054141499
-0.045539726 0.011266686 0.054184798
-0.044764455 0.012146045 0.054124799
-0.044033237 0.012970743 0.053943198
-0.043365017 0.013684353 0.053605501
-0.042704374 0.014388138 0.0532551
-0.042039264 0.015101607 0.0529202
-0.041356128 0.015854042 0.0526147
-0.040692508 0.016561925 0.052267101
-0.040060289 0.017221021 0.051858202
-0.039386414 0.017963482 0.051513702
-0.038729087 0.018668894 0.051160499
-0.038071405 0.019382149 0.0508237
-0.03740425 0.020092864 0.050498299
-0.036726844 0.020837586 0.050162401
-0.03606103 0.021551341 0.049845301
-0.035375949 0.022305153 0.049552999
-0.034718364 0.023012945 0.049206998
-0.034032915 0.023767974 0.048905998
-0.033369109 0.024482828 0.048585299
-0.032678157 0.025239689 0.048301399
-0.031990968 0.025989808 0.047988299
-0.031332299 0.02669741 0.047654901
-0.03063946 0.02745912 0.047384899
-0.029978499 0.028165903 0.047028001
-0.029264685 0.028958768 0.046762001
-0.028568318 0.029730229 0.046539702
-0.12362843 0.05179628 0.033548798
-0.13122968 0.10889812 -0.016014799
-0.13623883 0.10176058 -0.0108587
-0.14244106 0.063085161 0.031192699
-0.048190743 0.083205819 0.046503
-0.070435829 0.098309554 0.0339587
-0.034015935 0.08693397 -0.0157145
-0.022725126 0.036275443 0.045186602
-0.021957291 0.037149765 0.045086
-0.021225365 0.037974603 0.0449613
-0.020459216 0.038844556 0.044836201
-0.019729694 0.039663032 0.044663802
-0.018994443 0.04048752 0.044538502
-0.018272983 0.041294679 0.044310801
-0.017583057 0.042057719 0.044043802
-0.016924106 0.042762067 0.0436952
-0.016326105 0.043366432 0.043181401
-0.015728319 0.043988973 0.0426566
-0.01516355 0.044538036 0.0420468
-0.014569086 0.04513618 0.041505899
-0.013994562 0.045720041 0.040944099
-0.013455395 0.046241671 0.040252
-0.012947975 0.046712607 0.0394869
-0.012468485 0.047129303 0.038635999
-0.012046693 0.04747925 0.037664101
-0.051540382 0.089125507 0.042097699
-0.041216049 0.093791842 0.0345819
-0.039767966 0.09688352 0.0286723
-0.010533132 0.048603196 0.033316299
-0.010120112 0.048956111 0.032346401
-0.0096296631 0.049315039 0.031417299
-0.0091351848 0.049784914 0.030650301
-0.008599408 0.050255634 0.02991
-0.10713148 0.015489172 -0.0190299
-0.12669189 0.099077389 -0.00556617
-0.13224396 0.11416861 -0.0204206
-0.055648878 0.085044295 0.0460447
-0.12950245 0.051975109 0.0365339
-0.12858538 0.035041954 0.048268698
-0.092439786 0.038943768 -0.023534801
-0.093132183 0.038228169 -0.0233898
-0.10292151 0.02822303 -0.0219739
-0.10220988 0.028930143 -0.0219218
-0.1115661 0.021254994 -0.018634999
-0.11494494 0.01761099 -0.0163709
-0.11427284 0.018314637 -0.016670801
-0.11084818 0.021986209 -0.018835699
-0.11014354 0.022702869 -0.0189413
-0.10182402 0.031359125 -0.021811601
-0.10112016 0.032069344 -0.021888901
-0.093756847 0.041660897 -0.023046
-0.14026135 0.097619273 -0.0169318
-0.14141434 0.062076829 0.031205799
-0.14193535 0.061565731 0.031927399
-0.14759171 0.055960286 0.039751802
-0.066286236 0.10062207 0.031758901
-0.13149038 0.092136361 -8.5489201e-06
-0.13582857 0.077248156 0.00483874
-0.057303436 0.10347142 0.027471799
-0.066610239 -0.011968277 0.047144301
-0.065793954 -0.011023017 0.0471882
-0.065057009 -0.010191318 0.0470712
-0.064393744 -0.0094707776 0.046781301
-0.063733019 -0.0087636709 0.0464256
-0.063083403 -0.0080764312 0.046006002
-0.062427416 -0.0073754787 0.0456407
-0.061770722 -0.0066711288 0.045275699
-0.061042055 -0.005864108 0.045060001
-0.060345836 -0.0050978884 0.044814602
-0.059657324 -0.0043506883 0.044502299
-0.059002403 -0.0036406107 0.044153702
-0.058342531 -0.0029236022 0.043838501
-0.05768846 -0.0022266787 0.0434612
-0.14184844 0.041535459 -0.0088923899
-0.14141421 0.10494886 -0.0110873
-0.1397306 0.10873684 -0.0142737
-0.13520312 0.11327277 -0.019086801
-0.1397897 0.094008073 -0.0048449198
-0.14370927 0.092164576 -0.00019753999
-0.069713876 0.071465924 0.0485145
-0.047372475 0.011241583 0.053981502
-0.046577759 0.012177579 0.054071199
-0.045764163 0.013115063 0.054070201
-0.04505267 0.013893164 0.053878199
-0.044366356 0.014653162 0.053591002
-0.043702736 0.015361046 0.0532372
-0.043013588 0.01611666 0.052943502
-0.042351879 0.016828291 0.052606799
-0.041691579 0.017540067 0.052258901
-0.041032419 0.018247599 0.0519008
-0.040378198 0.018950885 0.051540598
-0.039722994 0.019650213 0.0511586
-0.039069135 0.02034438 0.050781701
-0.038410254 0.021062942 0.050452299
-0.03775724 0.021768847 0.0500945
-0.037065264 0.022524178 0.049812298
-0.036375262 0.023279659 0.049533602
-0.035710912 0.023987846 0.049190801
-0.035027325 0.024739744 0.048885699
-0.034373004 0.025446247 0.048531201
-0.033714667 0.026155215 0.048170902
-0.033021208 0.026904393 0.047881
-0.032364871 0.027617723 0.0475525
-0.031702425 0.028323444 0.047210999
-0.031017357 0.029058291 0.046864901
-0.15558533 0.068455786 -0.0325909
-0.12605494 0.047464825 0.038947601
-0.12497384 0.048461072 0.0375656
-0.13555512 0.079597667 0.0040278998
-0.14504521 0.095050067 -0.00032792299
-0.12758215 0.047957111 0.039648201
-0.12401352 0.049468063 0.036061201
-0.14367978 0.10269885 -0.0068929498
-0.12354166 0.033314414 0.037425
-0.058767717 0.1006792 0.0324848
-0.023017246 0.037996169 0.044867601
-0.022251025 0.038871568 0.044783399
-0.021519097 0.039691173 0.044628099
-0.020753937 0.040562682 0.044518199
-0.020019393 0.041390564 0.044414099
-0.019255366 0.042249206 0.044263601
-0.018565655 0.04300892 0.0440147
-0.017934207 0.043677561 0.043618299
-0.017288547 0.04436706 0.0432171
-0.016696841 0.044965558 0.042684801
-0.016111428 0.045558184 0.042134199
-0.015527217 0.046153143 0.0415846
-0.014940955 0.046742518 0.041021898
-0.014355611 0.04735091 0.040488198
-0.013832353 0.047870491 0.039836101
-0.013309799 0.048324171 0.039016999
-0.012880728 0.048708413 0.038110599
-0.012428038 0.049079645 0.037174098
-0.012031138 0.049423791 0.036192801
-0.011553559 0.04979248 0.035262302
-0.011149943 0.050142497 0.0342886
-0.010724971 0.050445847 0.033245701
-0.010304313 0.050850805 0.0323583
-0.0098139364 0.051216736 0.031436201
-0.0093230605 0.051629256 0.0305942
-0.0088224299 0.052154925 0.0298982
-0.13356172 0.051896825 0.037577201
-0.12554567 0.033423241 0.039022502
-0.16596553 0.055959933 -0.017913699
-0.14200075 0.045601737 0.047106799
-0.031839959 0.096000709 0.014157
-0.12266944 0.032302897 -0.0144399
-0.12480038 0.021740422 -0.0122376
-0.12843293 0.032388605 -0.0102762
-0.1413068 0.094452485 -0.015753601
-0.088954031 0.042522013 -0.024079399
-0.08826369 0.043237109 -0.024212399
-0.089651242 0.041806564 -0.0239607
-0.090346113 0.041093301 -0.0239227
-0.1014998 0.029630177 -0.0217389
-0.10363399 0.027511828 -0.022046899
-0.10434131 0.026800271 -0.022032101
-0.10041898 0.032777295 -0.021924101
-0.10322917 0.029934581 -0.0217872
-0.14358503 0.015925534 0.018200601
-0.10848333 0.026631195 -0.0210377
-0.096249044 0.037081171 -0.0228038
-0.038007904 0.094931841 0.030241599
-0.14807558 0.055497628 0.0405383
-0.12316908 0.056130555 0.027790699
-0.13133496 0.054108016 0.035093501
-0.13865148 0.10771583 -0.0142339
-0.13922323 0.10714407 -0.0136486
-0.13690831 0.10946324 -0.0159442
-0.12205519 0.049336184 0.034375399
-0.078647174 0.095535852 0.0332435
-0.14653388 0.065103173 0.032602601
-0.066186532 -0.0093804058 0.046798501
-0.065443583 -0.0085783377 0.046567898
-0.064783424 -0.0078560989 0.046261098
-0.064163998 -0.0072000436 0.045823801
-0.063541457 -0.0065509193 0.045366801
-0.06289199 -0.0058673583 0.04496
-0.062190108 -0.0051190984 0.044654999
-0.061499406 -0.0043299682 0.044458199
-0.060771801 -0.0035347585 0.044221599
-0.060151737 -0.0028714202 0.0438121
-0.05945877 -0.0021234434 0.043506902
-0.036368478 0.099354446 0.0101622
-0.037115753 0.098503649 0.0221477
-0.13727148 0.096553162 -0.0067000599
-0.13918209 0.10928534 -0.0149194
-0.13462521 0.1138408 -0.019662
-0.14095798 0.09281151 -0.0037472099
-0.14127845 0.080137894 0.0058607701
-0.12566765 0.05180059 0.0349878
-0.12625802 0.05710043 0.0292632
-0.047682967 0.012975339 0.0537128
-0.046878353 0.013922507 0.0537933
-0.046099614 0.014785673 0.053661499
-0.045406792 0.015559815 0.053459302
-0.044740129 0.016287569 0.053141799
-0.044049144 0.017035406 0.052831501
-0.04338963 0.017745834 0.0524811
-0.042732373 0.018448345 0.052118201
-0.042071015 0.019164288 0.051776901
-0.041454345 0.019822253 0.0513434
-0.12511568 0.058135271 0.0262098
-0.12445709 0.058693472 0.023928501
-0.032089852 0.087052979 -0.0137667
-0.13378933 0.010910161 0.023369599
-0.12671793 0.058548305 0.026757799
-0.12707593 0.058224231 0.0278379
-0.14049907 0.060930189 0.0309288
-0.1454535 0.071704656 0.0122178
-0.037735529 0.093409725 0.032514401
-0.13184386 0.037939526 0.051448099
-0.12514481 0.10270054 -0.0090453904
-0.13488953 0.10105786 -0.0101968
-0.064309239 0.098803312 0.033686399
-0.046995096 0.084409527 0.045432899
-0.14412053 0.071050659 0.0128837
-0.13871136 0.10135421 -0.0102811
-0.14249489 0.097555146 -0.00573949
-0.14373671 0.096345842 -0.0029353199
-0.14486015 0.11830518 -0.0166294
-0.048815399 0.082573667 0.046991501
-0.15093364 0.019068971 0.0392849
-0.14238663 0.10395806 -0.0095957601
-0.14145778 0.10280096 -0.0098259998
-0.13185944 0.10825564 -0.0155577
-0.024051812 0.038851697 0.044752602
-0.023360828 0.039612971 0.044478498
-0.022644246 0.040427558 0.044275202
-0.021915432 0.041248154 0.0441067
-0.021153666 0.042119808 0.0439981
-0.020392394 0.042982332 0.043876499
-0.019663651 0.043793667 0.043692999
-0.018996708 0.04451704 0.043390598
-0.018344969 0.045207813 0.043000199
-0.017728722 0.045846254 0.0425235
-0.017115589 0.046486687 0.042052299
-0.01654467 0.047067218 0.041489199
-0.015970148 0.047629155 0.0408911
-0.015377663 0.048199154 0.040348802
-0.014825836 0.048771769 0.0396985
-0.014275001 0.049327135 0.039075699
-0.013748702 0.04981355 0.038342498
-0.013239585 0.050284483 0.0375802
-0.01274758 0.050747216 0.036803398
-0.012261162 0.051210158 0.036026198
-0.011786761 0.051577643 0.035096999
-0.011345314 0.051935792 0.034139901
-0.010952799 0.052333534 0.0332372
-0.010524718 0.052638158 0.032196
-0.010034908 0.053054433 0.031350698
-0.0095189307 0.053524874 0.030603001
-0.12906227 0.054386698 0.034185801
-0.12677293 0.052706327 0.0347775
-0.14503807 0.050509483 0.043820798
-0.14459628 0.050932907 0.042944498
-0.14414188 0.098026633 -0.0033917299
-0.050919887 0.089791805 0.041651901
-0.11867416 0.028327689 -0.017217601
-0.13953599 0.08987914 -0.0139882
-0.0027431492 0.061171949 0.0296022
-0.11123864 0.011097901 -0.0166182
-0.11259763 0.0096418895 -0.015826499
-0.102993 0.019842904 -0.0207882
-0.11324343 -0.0046602562 0.0142875
-0.13415824 0.045100395 -0.0085548703
-0.098104276 0.024850987 -0.021630701
-0.12415169 0.02246407 -0.0126696
-0.087574892 0.043957151 -0.024462501
-0.086882144 0.04469629 -0.024731301
-0.10251592 0.030638937 -0.021678099
-0.099716268 0.033487521 -0.021914
-0.096945331 0.036364809 -0.022667799
-0.1118751 0.018812221 -0.017991001
-0.041847918 0.08957763 0.0401542
-0.071095981 0.097595654 0.034296799
-0.14486991 0.072309449 0.0116824
-0.13529187 0.04238851 0.0489587
-0.13631293 0.041405629 0.050424699
-0.13807391 0.10829058 -0.0148174
-0.13632311 0.11005551 -0.0164984
-0.14414237 0.091741376 0.00069363898
-0.14236209 0.076910302 0.0084173502
-0.13584086 0.11889717 -0.024483301
-0.075338602 0.073627576 0.044052999
-0.13506411 0.10712138 -0.0147167
-0.065949023 -0.0071088262 0.0458402
-0.065247923 -0.0063415449 0.045589902
-0.06462758 -0.005700836 0.0451167
-0.064007446 -0.0050464775 0.044668101
-0.12630185 0.04519558 0.0398601
-0.12278061 0.034124974 0.0372761
-0.14499635 0.066555858 0.0286413
-0.14535937 0.066209801 0.0296453
-0.060535342 -0.0012616888 0.043277301
-0.13723508 0.058138534 0.0313829
-0.15274546 0.019046135 0.0202819
-0.13789897 0.095891736 -0.0062690298
-0.13863379 0.1098421 -0.0155519
-0.1411451 0.04049084 0.0516087
-0.13404962 0.1143994 -0.0202542
-0.14250952 0.091268465 -0.00162934
-0.1402197 0.081135839 0.0061411601
-0.13879035 0.082657114 0.0056868801
-0.032998271 0.096782692 0.003186
-0.13929337 0.077966578 0.0073671099
-0.12089716 0.052359555 0.0297787
-0.046522535 0.016364008 0.053142801
-0.045824338 0.017134186 0.0528933
-0.045153078 0.01785494 0.052562401
-0.044504598 0.018558303 0.0521871
-0.045405306 0.10065325 0.0267541
-0.14696598 0.054582067 0.040739499
-0.15080006 0.019199714 0.0402916
-0.12172978 0.047657654 0.034728002
-0.030652162 0.09522897 0.0111648
-0.14248434 0.015770383 0.0133388
-0.12590092 0.041441552 0.039910302
-0.13971603 0.079615772 0.0068798
-0.031116659 0.092546701 0.026153101
-0.14159346 0.059844282 0.032242399
-0.039730914 0.097617082 -0.0047936202
-0.053819802 0.085027248 0.046133701
-0.137537 0.11928841 -0.024044201
-0.049269505 0.10403124 0.018173
-0.14038417 0.064232737 0.025416
-0.13342908 0.062541336 0.00341268
-0.14451841 0.070661247 0.0138449
-0.13564959 0.10443154 -0.0127977
-0.142011 0.11903442 -0.020078599
-0.1323752 0.010215711 0.0034131601
-0.12109536 0.044213474 0.035336498
-0.14438292 0.11864664 -0.017402399
-0.14457951 0.09759891 -0.0025132799
-0.14523795 0.046363927 0.048162501
-0.14783128 0.063838303 0.035301499
-0.12653378 0.048985668 0.038271099
-0.02525913 0.039929472 0.0463477
-0.024776313 0.040268172 0.0454216
-0.024207376 0.04074505 0.044769499
-0.023576215 0.04139474 0.044346102
-0.022911604 0.042152967 0.044034399
-0.022226345 0.04291926 0.043756999
-0.021509269 0.043735899 0.0435597
-0.020822104 0.044492785 0.043266501
-0.020140454 0.045244582 0.042963199
-0.019483762 0.045935921 0.0425837
-0.018862709 0.046584405 0.042127501
-0.018202486 0.047294132 0.041782402
-0.017611908 0.047896303 0.041243698
-0.017027628 0.048483837 0.0406841
-0.016452748 0.049062815 0.040103801
-0.015880415 0.049641795 0.039521299
-0.015295424 0.050230883 0.038967699
-0.014698699 0.050833412 0.038432501
-0.014139874 0.05140157 0.037827
-0.013589958 0.051935226 0.037179299
-0.013062948 0.052461103 0.036500301
-0.012542518 0.052937269 0.0357516
-0.012073563 0.053350501 0.034892999
-0.011635443 0.053708859 0.0339396
-0.011215843 0.054011218 0.032894999
-0.010771925 0.054421343 0.032020699
-0.010262098 0.054893266 0.031263702
-0.0096814912 0.055478677 0.0307026
-0.12517749 0.046315711 0.0386516
-0.13745992 0.053881746 0.0356206
-0.13808642 0.053239699 0.036076602
-0.12960383 0.043855116 0.042162199
-0.060646851 0.089256957 0.041710801
-0.0046541765 0.061370648 0.031387299
-0.0039129891 0.062184524 0.0312341
-0.0032661967 0.062822118 0.0307997
-0.0026845317 0.063413829 0.030223999
-0.0021259859 0.064006314 0.0296361
-0.0015837103 0.064538412 0.028971801
-0.0010337196 0.065064922 0.028314799
-0.00047086552 0.065592706 0.027663199
8.5983425e-05 0.066184208 0.027082801
0.00063738599 0.066712558 0.026425401
0.0011445247 0.067186028 0.025662599
0.0016390756 0.067597426 0.024816699
0.0021322109 0.068008676 0.0239661
0.0026336163 0.068641469 0.0233055
0.0030550547 0.06889829 0.022316201
0.0034653917 0.069196902 0.021261699
0.0038279928 0.069498271 0.020191099
-0.1429258 0.092931084 -0.0021436301
-0.13618481 0.016077913 0.0223625
-0.07767348 0.067047238 0.043743901
-0.14415963 0.06735298 0.0267072
-0.13739374 0.040302187 0.051717099
-0.12977976 0.10829036 -0.0151527
-0.13573699 0.11064728 -0.017052
-0.060070634 0.089858636 0.041162699
-0.13040745 0.1139446 -0.0205328
-0.14182717 0.077466443 0.0077968999
-0.13303329 0.10500005 -0.0130587
-0.14322051 0.054169752 0.037061501
-0.059571341 0.090353683 0.040403299
-0.067166656 -0.0064141639 0.0453289
-0.066494063 -0.0057271384 0.044941202
-0.065828882 -0.0050350949 0.0445637
-0.065173395 -0.0043059289 0.044241302
-0.059037402 0.09088479 0.039748199
-0.13497332 0.10303034 -0.0117855
-0.14398518 0.065506503 0.0286364
-0.12841356 0.045068018 0.041089099
-0.061655257 -0.00047185272 0.042954501
-0.057626095 0.092348427 0.039161202
-0.14868326 0.058900643 0.038145799
-0.14403376 0.077296317 0.0088786697
-0.13852942 0.095242895 -0.0058187302
-0.13632643 0.11213674 -0.017877201
-0.13204774 0.1164607 -0.0231509
-0.13250007 0.11596028 -0.022329301
-0.14077088 0.072328463 0.0105827
-0.15698215 0.069267958 -0.0376027
-0.13082452 0.090699315 -0.00081178697
-0.048625186 0.088368684 0.042541798
-0.14761016 0.057954263 0.0382744
-0.056962967 0.09303984 0.0387825
-0.056295671 0.093707137 0.038387399
-0.055672213 0.094356045 0.037955299
-0.04570448 0.019255858 0.0516744
-0.055088848 0.094974756 0.037434101
-0.054510787 0.095559895 0.036871001
-0.1465787 0.056957733 0.038295601
-0.14972046 0.063944593 0.0352378
-0.14595404 0.067637451 0.0287496
-0.13290808 0.011560909 0.00239755
-0.14022741 0.072859213 0.0099242302
-0.13969325 0.073384881 0.00925072
-0.14040899 0.1017468 -0.0098417997
-0.12451421 0.10755257 -0.013967
-0.039452605 0.097961865 -0.0038224601
-0.14502689 0.097164251 -0.00164046
-0.14104913 0.060388613 0.031588402
-0.14233528 0.11662559 -0.0176247
-0.13961045 0.11932497 -0.0226028
-0.1293422 0.11082095 -0.0173751
-0.13249044 0.10762178 -0.0150947
-0.14455214 0.11646077 -0.0147357
-0.14158943 0.11943904 -0.020970499
-0.13972218 0.1211776 -0.026054399
-0.14415185 0.095923632 -0.0020413599
-0.1458919 0.11305202 -0.0108227
-0.045552954 0.098718047 0.029917801
-0.053931456 0.096137807 0.036300201
-0.053397309 0.096659228 0.035629701
-0.052858777 0.097186454 0.034966599
-0.025843835 0.041334283 0.0472035
-0.025358757 0.041807473 0.046425201
-0.02477172 0.04245349 0.045933001
-0.024176829 0.043041728 0.045383699
-0.023595233 0.043628413 0.044818401
-0.023018161 0.044160374 0.044210799
-0.022398455 0.044805393 0.043749001
-0.021804838 0.045404665 0.043219499
-0.021195525 0.046055421 0.0427473
-0.020588759 0.046695989 0.0422564
-0.019970393 0.047342636 0.0417872
-0.019329827 0.048039068 0.041402001
-0.018692154 0.048695263 0.040967699
-0.018079873 0.049333144 0.0404859
-0.017499477 0.049920462 0.039919
-0.016905509 0.050542012 0.0394013
